 6.1728968210 3.3924737678 0.6978307610
 7.4710926665 3.3858802068 4.2823278851
 8.8750401689 3.3849019757 7.8162723763
 0.0957903135 3.3412555735 11.3876969986
 1.0371357639 1.5007440409 0.7045403877
 2.3567898190 1.4988905312 4.2767140863
 3.7502494785 1.5017124283 7.8238065021
 5.1376387463 1.4933696594 11.4014710739
 3.8312181077 1.5064898442 1.5257614465
 5.2006968053 1.5016134186 5.1032351082
 6.6041230789 1.5059595020 8.6499811300
 7.9145796941 1.4996913537 12.2303055121
 8.9410101033 3.3952164815 1.5489584154
 0.1016260617 3.3870764678 5.1373393421
 1.5109893033 3.3846147700 8.7473062870
 2.8815947524 3.3858550068 12.5198338622
 4.2399967379 3.3904710074 1.5338939853
 5.5717970673 3.3896686446 4.9670970266
 6.9706677759 3.3915425262 8.5327081436
 8.4272464853 3.3887331985 12.3148294834
 9.3385768618 1.4974657565 1.5444407941
 0.4816250507 1.4971529146 4.9638111985
 1.8814297869 1.4963026850 8.5292120955
 3.2831531138 1.4889986536 12.2482034625
 1.9582168150 1.4990600196 2.3151840432
 3.3685575167 1.4977203420 5.8807936317
 4.8203010263 1.5015324116 9.4250366076
 6.2286029874 1.4225062846 12.9599109765
 7.0485912666 3.3910572869 2.3194223369
 8.5023824742 3.3903843325 5.8747334225
 9.9117228796 3.3893981312 9.4044304512
 1.0686366329 3.3121919853 13.0067135869
 0.5042270973 3.3888088311 0.6242341731
 1.9662087921 3.3904300656 4.4064379163
 3.3566052592 3.3875979200 7.9083710461
 4.7498417691 3.3917920196 11.4643351329
 5.6515812937 1.4963576052 0.6202648530
 7.0588989845 1.4978035291 4.4066485420
 8.4495550185 1.4989714939 7.9037698753
 9.8397873636 1.4950008478 11.3868035624
 2.7113891186 1.4840852926 -0.0600398232
 4.1603267354 1.4978075565 3.4990283414
 5.5671894054 1.4978885176 7.0481797944
 7.0372758205 1.5013667573 10.6097937394
 7.8563696703 3.3754229449 -0.0587781254
 9.2528412905 3.3897903138 3.5109694570
 0.4234101152 3.3902610289 7.0493538203
 1.8734526899 3.3890124478 10.6168676193
 3.9946349310 0.0564795256 -0.9821983493
 4.8894832830 0.1432077284 13.9463764054
 4.5693572075 2.4782711043 -1.4215816989
 4.8373884055 3.3991150179 -1.2429470251
 9.5848393009 0.6005419928 14.3008690487
 9.2524377851 1.5094105713 14.1764100310
 10.0629090021 2.0134246524 13.9171654877
 3.9252875751 2.6488348638 14.6595756526
 3.7592899200 3.4741234451 14.1738669713
 9.5765512058 0.6031755366 -1.3563448425
 9.9179563147 1.5099594862 -1.2390244029
 9.1132727385 2.0155779608 -0.9718901069
 6.1635656555 7.1785022465 0.7024977907
 7.4532640952 7.1762225738 4.2854688291
 8.8360086006 7.1766933555 7.8174756156
 0.0068798731 7.2322807780 11.3666357342
 1.0322123727 5.2836959864 0.7009757212
 2.3393914691 5.2787378817 4.2597839612
 3.7012745967 5.2741676546 7.7724810264
 5.0413796850 5.2632544338 11.2929755045
 3.8344915231 5.2865912955 1.5191215280
 5.2089205093 5.2772032809 5.0815641433
 6.5999897250 5.2725720361 8.6072187185
 8.0521359167 5.2638507562 12.0967481657
 8.9376937568 7.1803608827 1.5307516734
 0.0898200696 7.1756181782 5.0815700958
 1.4813398632 7.1767643796 8.5998160368
 2.7784521420 7.1905211163 12.1732977093
 4.2432130597 7.1746306104 1.5343185833
 5.5730458126 7.1742907492 4.9664974670
 6.9728681898 7.1726430026 8.5308782956
 8.4316500795 7.1709266617 12.2471883190
 9.3390473117 5.2827615994 1.5443389060
 0.4818212938 5.2828592612 4.9633038479
 1.8789038146 5.2826691306 8.5258077796
 3.2763497253 5.2889814722 12.2355623004
 1.9574176698 5.2833498019 2.3144231864
 3.3666788170 5.2821935126 5.8724707981
 4.7648053453 5.2777172382 9.4028790249
 6.2247021182 5.2729167148 13.0225736649
 7.0489522856 7.1752869248 2.3197144412
 8.5067749573 7.1739809847 5.8709263975
 9.9151399630 7.1732283562 9.3864207854
 1.0812219988 7.1662013905 12.9377486188
 0.5043649789 7.1722365763 0.6231566143
 1.9654546818 7.1739929665 4.4045675522
 3.3554292346 7.1754601583 7.9037212248
 4.7454348321 7.1740897570 11.4009197454
 5.6514668987 5.2805624783 0.6200887242
 7.0590014704 5.2821240371 4.4054086625
 8.4431669233 5.2814195257 7.9052080472
 9.8314826036 5.2749802555 11.3860432438
 2.7103417955 5.2684331652 -0.0601455662
 4.1601057106 5.2820002735 3.4960396402
 5.5635247298 5.2823650939 7.0432982935
 6.9656770640 5.2841138586 10.6144864852
 7.8548776355 7.1596445987 -0.0594922844
 9.2539135139 7.1742319715 3.5043621379
 0.4249930979 7.1742761403 7.0384519120
 1.8810933899 7.1797056092 10.5697871203
 3.9938990979 3.8369412350 -0.9812906313
 5.9412076246 4.5310830598 13.5958480014
 4.5692392660 6.2631560160 -1.4236884241
 4.8371661300 7.1835957735 -1.2429106597
 9.5831464669 4.3867852743 14.2855762869
 9.2529416552 5.2988940145 14.1731394085
 10.0664480028 5.7963993062 13.9223706160
 4.0492885886 6.2312250443 14.4521527960
 4.0058803063 7.1689661704 14.1790075631
 9.5718519474 4.3855041711 -1.3468010548
 9.9175241515 5.2922329856 -1.2390169355
 9.1142986151 5.8025164432 -0.9765834910
 6.1641062224 10.9631009706 0.7027005414
 7.4539328991 10.9600784907 4.2869461434
 8.8385274350 10.9623725707 7.8203249564
 0.0066025393 10.9749223751 11.3808878543
 1.0349675087 9.0696945944 0.7053619051
 2.3546570813 9.0672634353 4.2753765970
 3.7448050586 9.0684967553 7.8196247929
 5.1432935374 9.0706092237 11.3882776502
 3.8307048311 9.0735160472 1.5216174937
 5.1992870397 9.0673978777 5.0955033046
 6.6004280602 9.0677009373 8.6280791315
 7.9092750609 9.0786815363 12.2169011304
 8.9376708164 10.9652982095 1.5320649561
 0.0900925073 10.9603851502 5.0842716051
 1.4790196413 10.9625849284 8.6081002905
 2.7832345326 10.9648676429 12.1929027566
 4.2430139173 10.9585554587 1.5349463238
 5.5728113855 10.9587277192 4.9669557565
 6.9743670375 10.9594881133 8.5306389572
 8.4374267164 10.9556625722 12.3117965564
 9.3386942068 9.0661826970 1.5440908222
 0.4815271701 9.0662998516 4.9635724192
 1.8812040343 9.0675800791 8.5266948557
 3.2831210728 9.0651642666 12.2424845518
 1.9579527631 9.0673828590 2.3149377206
 3.3684737857 9.0664593988 5.8788357411
 4.8215467608 9.0650525698 9.4008258627
 6.2268843040 9.0569767063 12.9535730252
 7.0490590346 10.9594329248 2.3199771868
 8.5077561758 10.9584471436 5.8719246635
 9.9167315842 10.9580148449 9.3884345217
 1.0816935011 10.9445880316 12.9473383538
 0.5046243188 10.9565721336 0.6237090030
 1.9656484954 10.9583601617 4.4048522286
 3.3577235837 10.9592528807 7.9066515246
 4.7436572697 10.9554854884 11.3936915268
 5.6513392813 9.0647305325 0.6200706227
 7.0586748017 9.0665038236 4.4062509957
 8.4496483701 9.0660511300 7.9020268608
 9.8417141636 9.0710350887 11.3852524027
 2.7109970777 9.0526310318 -0.0602446027
 4.1601119119 9.0661501466 3.4974058563
 5.5681659473 9.0665131972 7.0411839812
 7.0345932267 9.0700267593 10.6041980398
 7.8549326741 10.9438890376 -0.0590296883
 9.2539302021 10.9581353796 3.5051626330
 0.4280362864 10.9584854839 7.0406724500
 1.8800517106 10.9594630632 10.5946136060
 3.9933816326 7.6220947614 -0.9830478868
 4.9249487336 7.3782134147 13.9022769070
 4.5662594926 10.0479112596 -1.4208299006
 4.8370112317 10.9680561212 -1.2426740907
 9.5635305047 8.1614683353 14.3269216099
 9.2513321589 9.0731223852 14.1758838816
 10.0706449957 9.5498453691 13.9034651522
 4.4416537308 10.0604317065 14.2829910109
 4.0898944406 10.9653501732 14.1750727820
 9.5784233111 8.1706954354 -1.3582887164
 9.9180271505 9.0779028945 -1.2395155097
 9.1116498320 9.5820739660 -0.9753765306
